ply
format ascii 1.0
element vertex 1286
property float x
property float y
property float z
property uchar red
property uchar green
property uchar blue
end_header
8.34873 -16.9206 37.8642 255 255 255
8.34873 -16.9206 37.8642 255 255 255
-26.4413 -1.03064 6.58994 255 255 255
63.233 -12.4 -7.73015 255 255 255
-22.9026 -7.9907 24.1755 255 255 255
-6.68637 -15.7021 39.6269 255 255 255
-6.68637 -15.7021 39.6269 255 255 255
2.53375 -17.2826 39.2198 255 255 255
-22.8432 -8.41518 24.8143 255 255 255
-12.4832 -14.2068 37.3979 255 255 255
-25.3873 -7.32423 21.0592 255 255 255
-6.75011 -16.4797 39.5895 255 255 255
26.8581 -19.9914 30.7965 255 255 255
2.96778 -18.7018 39.2338 255 255 255
3.04373 -18.6716 39.134 255 255 255
-21.7162 -11.0094 28.091 255 255 255
-21.7208 -11.0067 28.1293 255 255 255
0.343096 -18.5939 39.5526 255 255 255
70.4225 -20.4901 4.52326 255 255 255
70.6508 -20.9539 5.53634 255 255 255
-11.6428 -16.1296 37.7351 255 255 255
69.9433 -20.3937 2.96563 255 255 255
-21.2543 -11.4712 27.4781 255 255 255
-21.2543 -11.4712 27.4781 255 255 255
-10.2005 -16.913 38.33 255 255 255
-5.27753 -18.2532 39.3182 255 255 255
5.94159 -20.1238 38.2609 255 255 255
2.78542 -20.1532 39.1681 255 255 255
-69.4963 23.4584 -66.706 255 255 255
-23.8372 -12.4612 27.9623 255 255 255
-32.2133 -7.17346 14.7216 255 255 255
-32.2183 -7.18269 14.7399 255 255 255
69.382 -21.8903 0.408281 255 255 255
7.04572 -22.0979 39.7559 255 255 255
10.8644 -22.8834 38.7189 255 255 255
72.2636 -27.6263 10.7097 255 255 255
-30.1448 -10.6176 19.4705 255 255 255
-26.3706 -13.6868 26.9815 255 255 255
72.1717 -26.6449 5.54509 255 255 255
-2.65352 -22.124 40.2969 255 255 255
-1.09558 -22.706 40.8796 255 255 255
-26.3066 -14.0029 26.8358 255 255 255
-21.1602 -16.8386 33.4437 255 255 255
76.5397 -30.5499 14.5092 255 255 255
72.93 -27.3167 4.79551 255 255 255
68.7657 -24.4464 -3.5682 255 255 255
67.0551 -24.4921 -1.81912 255 255 255
-32.5266 -11.6809 21.0894 255 255 255
73.9951 -28.7736 7.59639 255 255 255
-32.9635 -12.1619 21.3808 255 255 255
-27.7151 3.62055 -43.3088 255 255 255
-20.5151 -18.9077 34.8835 255 255 255
76.9016 -30.1348 3.92932 255 255 255
-19.2709 -20.0743 35.8225 255 255 255
-10.2728 -23.1352 40.2549 255 255 255
-19.5544 -20.2427 35.5933 255 255 255
73.6036 -31.3525 5.70105 255 255 255
15.0877 -28.523 39.9116 255 255 255
-28.2337 -16.6051 27.3945 255 255 255
-32.8238 -15.1784 25.1648 255 255 255
-21.6806 -19.5772 33.814 255 255 255
-21.8998 -19.5602 33.6509 255 255 255
-16.6725 -21.7614 37.7683 255 255 255
73.6966 -31.6318 4.1422 255 255 255
-22.5909 -19.5042 32.966 255 255 255
7.68103 -28.1899 42.0006 255 255 255
73.2093 -31.9105 4.15333 255 255 255
-22.2998 -19.9057 33.1161 255 255 255
-22.3067 -19.9078 33.1316 255 255 255
14.5787 -29.2375 40.0818 255 255 255
-19.2377 -21.327 35.5787 255 255 255
-8.92249 -24.8012 40.1898 255 255 255
-5.56198 -25.9358 41.0604 255 255 255
4.86064 -28.6245 42.2234 255 255 255
12.9701 -29.7939 40.1365 255 255 255
-31.1637 -17.6139 27.5503 255 255 255
-26.1257 -19.547 31.2671 255 255 255
-17.8785 -22.6496 36.3652 255 255 255
-16.6032 -23.1345 37.4474 255 255 255
82.0418 -35.4647 4.24687 255 255 255
13.714 -30.0265 39.5189 255 255 255
75.586 -35.4049 8.21154 255 255 255
75.586 -35.4049 8.21154 255 255 255
-32.6323 -16.875 24.1476 255 255 255
-64.5368 6.15561 -47.4499 255 255 255
-35.3186 -1.39852 -39.4004 255 255 255
1.7123 -28.9332 42.9666 255 255 255
15.624 -30.676 37.6665 255 255 255
15.624 -30.676 37.6665 255 255 255
79.4824 -35.8025 3.37823 255 255 255
78.4637 -38.4438 13.0385 255 255 255
-24.4849 -21.8365 34.1789 255 255 255
-29.8737 -19.9442 29.4686 255 255 255
-27.851 -21.616 33.5641 255 255 255
-30.3083 -19.8691 28.1337 255 255 255
-31.0616 -19.4749 27.2485 255 255 255
-25.3972 -22.716 35.1185 255 255 255
-32.8556 -5.30932 -33.5053 255 255 255
78.3531 -39.8753 12.516 255 255 255
0.38728 -30.5058 43.8931 255 255 255
4.4837 -31.3196 43.0656 255 255 255
-3.79338 -30.2042 44.2603 255 255 255
-30.3651 -20.6431 26.6106 255 255 255
-27.354 -23.7567 32.6383 255 255 255
-27.3877 -23.7668 32.7302 255 255 255
-19.3104 -27.3114 40.9493 255 255 255
-18.2579 -28.0594 42.7717 255 255 255
-1.94759 -31.7699 42.8984 255 255 255
-52.1349 -5.09148 -32.1305 255 255 255
-4.16715 -31.4951 43.2351 255 255 255
70.9294 -42.6654 15.6598 255 255 255
-15.7073 -28.8588 40.8375 255 255 255
-13.6992 -29.6299 41.2905 255 255 255
-39.9098 -11.4753 -23.8282 255 255 255
-42.2598 -10.9951 -24.2539 255 255 255
3.64208 -34.5907 40.3575 255 255 255
-15.9845 -29.9952 39.7159 255 255 255
-4.9063 -33.126 41.8428 255 255 255
5.32044 -35.4914 39.8353 255 255 255
-7.23612 -33.4331 43.3001 255 255 255
-23.0965 -28.1387 34.2108 255 255 255
-45.7713 -12.3998 -22.8198 255 255 255
13.1603 -37.2462 34.2749 255 255 255
-44.071 -13.8529 -20.6954 255 255 255
-22.556 -29.1352 34.0326 255 255 255
13.4818 -37.6596 33.9351 255 255 255
-29.2494 -26.3038 26.2872 255 255 255
12.0776 -37.6848 34.5521 255 255 255
-50.253 -12.9097 -24.1633 255 255 255
-74.4411 -7.16642 -29.2595 255 255 255
-54.2055 -12.8531 -22.0322 255 255 255
-44.418 -16.0252 -17.5584 255 255 255
-27.6597 -28.2167 29.1043 255 255 255
-22.125 -30.7407 33.4111 255 255 255
-19.4938 -32.2053 37.4977 255 255 255
-7.62421 -35.5558 39.6692 255 255 255
9.89537 -39.1852 34.7318 255 255 255
-7.61857 -35.7395 39.0672 255 255 255
5.10424 -39.0201 38.0383 255 255 255
-27.0515 -29.2809 26.8384 255 255 255
-26.096 -30.0589 29.3471 255 255 255
-9.83114 -35.6617 38.4779 255 255 255
4.99051 -39.2227 37.708 255 255 255
9.83172 -39.9801 34.0865 255 255 255
16.5427 -40.937 29.9742 255 255 255
15.5747 -40.928 30.5621 255 255 255
-55.2575 -16.5419 -17.1181 255 255 255
-48.3102 -18.6555 -14.5197 255 255 255
-48.185 -18.6043 -15.0095 255 255 255
1.04025 -39.0671 37.2662 255 255 255
-48.5143 -19.1895 -13.4387 255 255 255
-5.72529 -37.7621 38.6317 255 255 255
-16.0667 -35.6928 35.2795 255 255 255
-11.8624 -37.3667 36.191 255 255 255
-7.78143 -38.8385 37.0267 255 255 255
-23.138 -34.1717 30.6019 255 255 255
-9.10464 -38.8039 36.7342 255 255 255
-8.96111 -38.7982 36.4884 255 255 255
-7.78641 -39.3793 36.9599 255 255 255
-58.6465 -20.1644 -12.1339 255 255 255
-58.6205 -20.1512 -12.3024 255 255 255
-23.2569 -34.5731 30.2488 255 255 255
-22.9376 -34.7149 30.3519 255 255 255
-22.5859 -34.9122 30.7316 255 255 255
-22.7308 -34.9405 31.0554 255 255 255
-2.64138 -40.9442 36.6334 255 255 255
-23.4358 -34.7595 30.1439 255 255 255
-14.7913 -37.8231 34.8068 255 255 255
-26.368 -33.8171 26.2044 255 255 255
-2.59247 -41.6097 34.9688 255 255 255
-17.5325 -37.7329 32.94 255 255 255
-24.8499 -35.4211 27.3835 255 255 255
-24.6965 -35.4178 27.0804 255 255 255
-12.9129 -39.6615 34.4392 255 255 255
-66.9207 -21.023 -10.8734 255 255 255
-26.5905 -35.3485 24.6224 255 255 255
-25.5373 -36.0207 25.5044 255 255 255
-26.416 -36.4302 24.8128 255 255 255
-39.497 -32.4472 7.56806 255 255 255
-7.7252 -44.2477 35.2569 255 255 255
-19.0613 -41.0733 31.8568 255 255 255
-49.2628 -30.1984 0.203097 255 255 255
-37.4352 -34.7699 12.2426 255 255 255
-48.5794 -33.0406 3.59427 255 255 255
-31.0018 -40.1571 25.113 255 255 255
-30.2055 -40.7215 25.5971 255 255 255
-51.2175 -33.8024 4.80441 255 255 255
-8.89297 -49.1849 36.361 255 255 255
-29.7333 -43.3527 24.5481 255 255 255
-31.4352 -42.8991 22.8163 255 255 255
-14.518 -48.5217 33.7466 255 255 255
-54.3008 -36.237 7.82412 255 255 255
-21.3089 -46.6305 31.7852 255 255 255
-22.327 -46.5399 31.2434 255 255 255
-22.2708 -47.3261 30.5049 255 255 255
-32.2426 -44.1101 22.835 255 255 255
-62.5874 -36.5965 7.98458 255 255 255
13.1996 -60.4067 38.3258 255 255 255
15.5773 -64.7604 44.6256 255 255 255
14.0351 -64.429 44.2587 255 255 255
16.3623 -65.6503 46.0061 255 255 255
1.45852 -60.7507 39.1251 255 255 255
8.67934 -63.4527 40.5031 255 255 255
-16.2027 -55.7279 35.4437 255 255 255
0.356736 -61.837 37.0107 255 255 255
-2.69097 -62.3798 39.0647 255 255 255
-20.567 -56.7445 34.3863 255 255 255
-1.78987 -63.904 41.5407 255 255 255
-18.6179 -58.4526 36.8269 255 255 255
-15.6398 -59.8376 38.6152 255 255 255
-15.8777 -59.7596 38.3775 255 255 255
17.808 111.941 -56.0184 255 255 255
16.3311 110.437 -57.7264 255 255 255
7.12648 106.897 -53.798 255 255 255
7.19125 106.965 -53.885 255 255 255
14.3913 108.698 -57.4297 255 255 255
17.9248 109.796 -59.2028 255 255 255
15.4082 108.887 -58.2126 255 255 255
33.7805 113.398 -66.52 255 255 255
48.9646 117.759 -73.3033 255 255 255
52.1951 118.627 -74.6628 255 255 255
34.9181 113.502 -67.3106 255 255 255
32.7996 112.604 -66.3297 255 255 255
50.796 117.719 -74.3754 255 255 255
79.1506 125.011 -85.35 255 255 255
12.5034 106.909 -58.0748 255 255 255
64.5512 120.955 -79.8499 255 255 255
64.4019 120.869 -79.735 255 255 255
51.3105 117.225 -74.8709 255 255 255
51.2996 117.264 -74.9242 255 255 255
13.7278 106.562 -58.6409 255 255 255
14.4527 106.396 -59.3258 255 255 255
13.8526 105.582 -59.7566 255 255 255
39.55 112.833 -71.3867 255 255 255
15.9539 105.566 -60.3071 255 255 255
79.032 122.545 -87.3129 255 255 255
65.7099 118.661 -82.025 255 255 255
58.4992 74.1651 -16.7933 255 255 255
58.1928 70.9651 -12.1293 255 255 255
70.2935 119.79 -84.7604 255 255 255
61.5631 68.0497 -8.56646 255 255 255
-28.3321 92.3732 -40.3791 255 255 255
47.4108 113.347 -75.3228 255 255 255
59.206 68.6988 -10.1425 255 255 255
25.768 107.275 -66.1326 255 255 255
-9.81729 97.8047 -50.3018 255 255 255
5.44504 101.365 -56.9981 255 255 255
53.7724 48.8 19.0968 255 255 255
-12.0327 96.869 -49.4888 255 255 255
26.8756 107.151 -67.1041 255 255 255
57.4733 71.506 -15.6934 255 255 255
2.58671 100.182 -56.1964 255 255 255
13.7993 103.103 -61.1691 255 255 255
0.951743 99.5348 -55.2169 255 255 255
30.8158 107.96 -69.2983 255 255 255
22.7538 105.362 -65.7939 255 255 255
-33.1786 90.6173 -40.4649 255 255 255
60.4133 42.6356 26.6921 255 255 255
-72.9973 79.3457 -21.1592 255 255 255
63.3091 114.95 -84.0496 255 255 255
-36.5637 88.7931 -39.2227 255 255 255
-8.56667 95.9604 -52.402 255 255 255
-8.54454 95.9946 -52.4645 255 255 255
-38.6482 88.1737 -38.4561 255 255 255
58.2144 46.4086 19.0371 255 255 255
-0.879218 97.6211 -56.1033 255 255 255
59.9589 44.4066 21.709 255 255 255
24.0299 104.184 -67.912 255 255 255
57.9092 45.5236 19.7741 255 255 255
67.009 58.1634 -0.458085 255 255 255
-12.8965 93.9118 -50.5245 255 255 255
-6.36917 95.5449 -54.1531 255 255 255
58.5887 43.5057 21.941 255 255 255
-39.6084 87.2833 -38.9965 255 255 255
61.4466 39.5162 27.9482 255 255 255
-1.3677 96.6553 -56.7463 255 255 255
-14.2096 93.3621 -50.8977 255 255 255
83.5675 117.61 -94.156 255 255 255
58.5561 43.3746 21.2504 255 255 255
61.9084 39.4577 27.0637 255 255 255
7.35913 98.3731 -61.0428 255 255 255
73.166 114.376 -89.9785 255 255 255
61.6778 37.4517 29.905 255 255 255
-65.6138 79.9205 -27.1072 255 255 255
61.921 38.8613 27.1561 255 255 255
66.9377 36.8294 30.3132 255 255 255
66.9377 36.8294 30.3132 255 255 255
65.0194 111.853 -86.7385 255 255 255
15.9427 99.959 -65.806 255 255 255
58.357 67.0687 -17.5322 255 255 255
1.75553 96.2034 -59.0621 255 255 255
62.267 38.5463 26.7273 255 255 255
68.398 36.2945 30.1886 255 255 255
28.9009 101.875 -71.036 255 255 255
77.1774 33.1558 34.2351 255 255 255
63.4358 110.394 -87.1435 255 255 255
70.5273 33.6767 32.5063 255 255 255
-10.9663 91.4885 -54.2392 255 255 255
-70.9245 76.8774 -25.7671 255 255 255
-70.9326 76.9529 -25.8703 255 255 255
-13.6945 90.6584 -53.1028 255 255 255
-13.6331 90.7173 -53.3968 255 255 255
81.4301 113.087 -95.6478 255 255 255
77.5484 111.797 -93.9383 255 255 255
-9.05424 91.0538 -55.4968 255 255 255
82.9038 113.019 -97.0897 255 255 255
118.744 121.565 -113.43 255 255 255
59.6554 106.872 -87.6051 255 255 255
53.7833 105.134 -85.0252 255 255 255
56.3756 42.5577 14.8066 255 255 255
64.797 56.0123 -7.53085 255 255 255
63.0624 35.202 26.3651 255 255 255
63.0624 35.202 26.3651 255 255 255
-65.8884 76.4737 -29.3833 255 255 255
55.778 104.526 -86.3259 255 255 255
46.5194 102.502 -83.038 255 255 255
19.6833 95.5241 -71.0317 255 255 255
70.7395 107.503 -95.0832 255 255 255
53.5839 102.476 -87.585 255 255 255
-36.3053 81.7217 -44.9776 255 255 255
30.7263 97.2607 -77.4135 255 255 255
-24.8691 83.6249 -51.0132 255 255 255
-0.98422 88.6911 -62.8024 255 255 255
30.5667 96.0934 -78.1477 255 255 255
69.7024 104.37 -95.7107 255 255 255
69.8413 104.458 -95.8493 255 255 255
72.578 104.845 -97.0669 255 255 255
83.9631 107.916 -102.925 255 255 255
-65.3318 73.939 -32.2089 255 255 255
43.6738 97.3158 -85.3972 255 255 255
43.5907 97.2335 -85.2341 255 255 255
14.5086 90.7171 -71.5922 255 255 255
14.4783 90.7046 -71.5296 255 255 255
-43.2461 77.9053 -43.4248 255 255 255
44.7822 97.3753 -85.9992 255 255 255
106.116 109.91 -112.968 255 255 255
56.8119 38.299 11.7993 255 255 255
42.8615 96.5508 -85.3636 255 255 255
67.2237 48.3604 -6.03339 255 255 255
19.6201 91.4184 -74.2192 255 255 255
59.2202 57.3949 -21.343 255 255 255
-2.91505 86.3276 -63.792 255 255 255
-68.8911 71.4826 -31.1035 255 255 255
-54.4119 74.4797 -38.4273 255 255 255
-44.3763 76.5892 -43.6184 255 255 255
54.6269 97.9362 -91.9463 255 255 255
44.5915 95.7409 -87.0439 255 255 255
-65.8845 71.9246 -32.8967 255 255 255
-45.2945 76.3082 -43.4226 255 255 255
57.2024 98.0689 -92.9195 255 255 255
30.3556 92.2609 -80.4714 255 255 255
37.9492 93.9613 -84.2393 255 255 255
-20.0986 81.1058 -55.8656 255 255 255
61.6059 52.8539 -17.4606 255 255 255
70.8121 99.9045 -99.2275 255 255 255
118.114 109.904 -120.78 255 255 255
-52.0796 73.8125 -40.7482 255 255 255
60.5148 55.191 -23.0695 255 255 255
63.4084 50.1325 -14.8837 255 255 255
39.8332 93.1334 -86.7207 255 255 255
35.0743 91.8296 -84.2005 255 255 255
69.3242 99.4851 -100.879 255 255 255
66.505 46.5277 -9.34737 255 255 255
85.4443 101.767 -107.091 255 255 255
-50.115 73.6866 -42.2304 255 255 255
60.0632 96.3745 -95.8128 255 255 255
-52.5439 72.6203 -41.1161 255 255 255
-52.919 71.1843 -38.5673 255 255 255
-4.80499 82.2082 -65.139 255 255 255
-15.1054 79.6757 -60.6053 255 255 255
-67.555 69.0247 -34.1054 255 255 255
-47.8905 73.0191 -44.2047 255 255 255
-47.8784 73.0259 -44.21 255 255 255
90.8613 101.157 -111.584 255 255 255
71.2913 96.9171 -102.312 255 255 255
20.3053 86.4735 -78.1098 255 255 255
-37.3563 75.0189 -49.8746 255 255 255
25.2156 87.4871 -80.9875 255 255 255
-74.5756 67.1091 -30.6368 255 255 255
21.9973 86.5431 -79.3213 255 255 255
-29.7103 76.0768 -53.8256 255 255 255
57.8569 93.3874 -96.5213 255 255 255
57.8048 93.3014 -96.3623 255 255 255
-54.2692 70.8184 -41.5727 255 255 255
72.9238 95.9188 -104.149 255 255 255
-73.3331 63.4814 -26.2804 255 255 255
66.198 23.8094 24.8978 255 255 255
69.7228 95.2672 -104.204 255 255 255
68.8697 94.5816 -102.737 255 255 255
62.5084 26.7644 19.0125 255 255 255
-24.3717 75.2803 -57.0221 255 255 255
98.375 99.5517 -117.104 255 255 255
58.334 31.2659 10.3852 255 255 255
-23.3817 75.3136 -58.0659 255 255 255
-54.2041 69.5897 -42.7402 255 255 255
91.5915 97.5377 -114.454 255 255 255
-8.36438 78.0594 -66.0999 255 255 255
-8.40164 78.0309 -65.9878 255 255 255
65.8675 43.0393 -13.2876 255 255 255
-51.3879 69.7032 -44.0434 255 255 255
-51.3917 69.7057 -44.0443 255 255 255
55.6629 33.4484 5.39681 255 255 255
55.6629 33.4484 5.39681 255 255 255
33.6015 85.7992 -86.6458 255 255 255
7.16226 80.7628 -74.1131 255 255 255
5.89356 80.4658 -73.776 255 255 255
3.36336 79.7011 -72.6223 255 255 255
-62.4529 67.2146 -39.0976 255 255 255
2.0107 79.1696 -71.7345 255 255 255
2.08309 79.2414 -71.9573 255 255 255
0.612668 78.8713 -71.2541 255 255 255
0.645299 78.9133 -71.3923 255 255 255
-43.3458 70.0097 -48.1149 255 255 255
-71.7223 65.1115 -34.6783 255 255 255
2.45403 78.2037 -72.6147 255 255 255
67.0036 90.3328 -104.458 255 255 255
63.4769 89.2324 -102.718 255 255 255
42.4296 84.3721 -93.7516 255 255 255
42.4706 84.4335 -93.8489 255 255 255
79.1881 90.9505 -111.81 255 255 255
90.6915 92.6859 -117.654 255 255 255
90.6915 92.6859 -117.654 255 255 255
91.8477 92.4801 -118.025 255 255 255
37.3841 82.8218 -92.3521 255 255 255
90.0282 92.2871 -118.323 255 255 255
-32.5769 69.5999 -56.6043 255 255 255
-69.0968 62.9899 -37.711 255 255 255
63.4794 21.673 17.346 255 255 255
58.6598 25.8657 8.28487 255 255 255
80.6323 88.0207 -114.534 255 255 255
75.1372 86.5193 -113.04 255 255 255
70.0365 84.7751 -110.132 255 255 255
65.857 83.765 -108.946 255 255 255
66.3554 35.7553 -16.8664 255 255 255
65.8681 15.7048 21.0351 255 255 255
22.6298 74.7543 -88.455 255 255 255
89.887 85.5883 -122.669 255 255 255
62.8483 18.9488 14.2274 255 255 255
60.7247 39.2392 -28.5483 255 255 255
-25.8619 65.6293 -64.1942 255 255 255
63.8504 35.5757 -23.5169 255 255 255
55.6391 24.9214 -1.45063 255 255 255
63.5456 35.8047 -25.4149 255 255 255
0.38459 68.3024 -78.51 255 255 255
-4.93477 66.8082 -77.0006 255 255 255
16.555 67.4461 -83.2599 255 255 255
-54.8422 59.0897 -50.0316 255 255 255
-1.82245 66.6741 -78.3989 255 255 255
64.7135 33.0194 -23.6886 255 255 255
17.1554 65.6189 -82.8446 255 255 255
1.3201 66.6 -81.4883 255 255 255
15.9136 66.495 -85.6526 255 255 255
64.2852 31.36 -25.7841 255 255 255
65.7685 11.5363 16.0856 255 255 255
56.977 19.936 -0.668713 255 255 255
57.1268 19.6731 -1.42818 255 255 255
-23.6299 59.8127 -69.4585 255 255 255
60.2434 33.3891 -35.4197 255 255 255
63.3008 12.2424 9.79518 255 255 255
63.37 12.2628 9.6509 255 255 255
63.7958 11.2244 11.0727 255 255 255
-35.7175 56.9995 -64.1928 255 255 255
-68.0456 52.781 -46.5725 255 255 255
68.8043 70.3738 -121.324 255 255 255
56.6415 17.8773 -3.6476 255 255 255
17.0835 63.2337 -93.4531 255 255 255
67.0825 7.06188 16.0104 255 255 255
71.0898 2.42728 24.8114 255 255 255
-56.5128 52.606 -53.842 255 255 255
66.5383 5.77169 16.0896 255 255 255
10.4362 60.1102 -91.4812 255 255 255
66.3256 6.1637 14.0142 255 255 255
66.8428 4.16931 17.7813 255 255 255
-71.3208 49.682 -46.5938 255 255 255
62.5496 26.9008 -34.2352 255 255 255
-46.7351 52.5502 -61.3145 255 255 255
-46.7289 52.5934 -61.3159 255 255 255
66.3483 5.50817 13.3188 255 255 255
55.8466 14.8371 -8.11988 255 255 255
-59.4944 49.5445 -54.0821 255 255 255
30.4826 59.7212 -104.204 255 255 255
69.3167 1.5773 17.9843 255 255 255
-12.4749 53.809 -81.8574 255 255 255
75.5445 -5.47259 30.6235 255 255 255
69.0043 -0.602822 20.275 255 255 255
66.9318 2.48834 12.5677 255 255 255
-1.62249 3.92397 26.8752 255 255 255
60.128 7.64181 -0.560809 255 255 255
-14.8391 51.5072 -82.3564 255 255 255
71.2598 -2.57458 20.473 255 255 255
-66.0633 46.0529 -52.8138 255 255 255
60.8501 6.30353 1.4428 255 255 255
-5.81202 51.8403 -87.4653 255 255 255
-56.8661 45.9517 -59.1536 255 255 255
-24.6681 48.7037 -77.7014 255 255 255
6.15102 -2.14389 34.9856 255 255 255
-65.7627 44.4682 -53.9046 255 255 255
-62.0206 44.7625 -55.9303 255 255 255
-62.01 44.7039 -55.8765 255 255 255
63.035 3.5918 2.86364 255 255 255
63.1223 3.60238 2.75565 255 255 255
6.67186 -2.54927 35.0844 255 255 255
-12.7942 47.857 -81.6758 255 255 255
67.7407 -1.43874 12.3812 255 255 255
-74.0899 43.3675 -49.4229 255 255 255
73.5991 -7.37375 24.2706 255 255 255
3.61208 -3.72876 37.216 255 255 255
-53.8167 43.3296 -60.3565 255 255 255
9.20145 49.6102 -98.8536 255 255 255
-15.4396 3.49027 24.342 255 255 255
-63.7455 42.6357 -56.5306 255 255 255
65.1646 -0.57731 5.88313 255 255 255
-4.17305 47.4936 -92.1706 255 255 255
-8.02988 -2.88647 35.861 255 255 255
-73.3746 40.8745 -50.0125 255 255 255
-16.6162 3.14264 23.0463 255 255 255
-7.65136 46.6322 -90.4939 255 255 255
24.0971 40.8556 -89.5396 255 255 255
-62.3817 41.4802 -58.7001 255 255 255
62.4695 0.182413 -0.679036 255 255 255
-4.73093 -5.48727 38.225 255 255 255
56.5323 5.47143 -12.7939 255 255 255
63.4027 -1.9871 4.01553 255 255 255
-15.2356 -1.19442 30.4359 255 255 255
70.9526 -7.77586 15.6429 255 255 255
6.17787 -7.35718 37.6636 255 255 255
-11.7408 -3.96523 34.8262 255 255 255
-12.1076 43.4372 -89.4751 255 255 255
-16.085 -2.21208 30.6623 255 255 255
-14.6266 -3.41432 32.4498 255 255 255
11.2166 36.7037 -84.6544 255 255 255
-8.0945 41.6366 -91.4136 255 255 255
67.1964 -6.84277 7.75131 255 255 255
67.1964 -6.84277 7.75131 255 255 255
-1.69218 -8.78462 39.613 255 255 255
-14.8256 40.9009 -89.209 255 255 255
-57.6997 37.9531 -65.5065 255 255 255
12.6927 -9.88966 35.0328 255 255 255
-20.2717 -1.66394 24.8995 255 255 255
-63.3383 36.3344 -61.1666 255 255 255
-56.7942 36.6909 -65.6973 255 255 255
-56.7942 36.6909 -65.6973 255 255 255
-53.8799 36.3538 -67.4279 255 255 255
-23.0947 38.3611 -86.685 255 255 255
-60.1881 35.8206 -63.6883 255 255 255
-24.1831 37.9427 -85.7986 255 255 255
3.93645 30.0225 -76.1211 255 255 255
6.02247 -11.5637 38.4435 255 255 255
-7.76408 -9.60579 38.7154 255 255 255
68.4432 -10.1792 7.25146 255 255 255
72.9258 -14.811 15.5478 255 255 255
5.87836 28.1522 -77.0262 255 255 255
70.0918 -12.5799 9.70373 255 255 255
-13.3518 -8.6508 35.9275 255 255 255
-3.98862 -11.6551 39.9517 255 255 255
68.3885 -11.3639 6.21864 255 255 255
-29.7216 35.5545 -83.6291 255 255 255
75.1256 -15.5985 13.7332 255 255 255
-15.1783 -8.88938 34.7837 255 255 255
-21.838 -4.18357 22.6882 255 255 255
69.9618 -14.1338 7.86548 255 255 255
-12.993 -10.7115 36.614 255 255 255
11.1473 -14.3784 35.533 255 255 255
69.955 -15.0563 7.71278 255 255 255
72.4788 -17.0557 12.3242 255 255 255
72.4914 -17.0606 12.3279 255 255 255
-38.7287 31.7221 -79.1437 255 255 255
73.5796 -19.0117 13.2846 255 255 255
-18.2982 -9.7354 31.383 255 255 255
66.6172 -13.9547 -1.18147 255 255 255
-20.7431 -8.9542 29.1868 255 255 255
-1.80531 -15.6858 40.0398 255 255 255
-24.2454 -4.73496 17.5461 255 255 255
-11.0669 -14.0517 38.0525 255 255 255
-29.8508 -1.13171 6.20907 255 255 255
73.051 -20.6473 10.7923 255 255 255
-26.3604 -6.16646 19.5354 255 255 255
-26.1615 -6.47582 19.5751 255 255 255
1.83526 -17.6886 39.5195 255 255 255
73.3403 -21.4754 10.6659 255 255 255
-17.3167 -12.7597 33.7912 255 255 255
-25.9366 -7.4705 20.7787 255 255 255
-16.6555 -13.4121 34.5853 255 255 255
-0.00459677 -18.1064 39.9647 255 255 255
4.30124 -19.3088 38.8161 255 255 255
-24.6318 -9.59149 23.7788 255 255 255
72.7258 -23.4674 11.2613 255 255 255
72.5925 -22.8897 7.89385 255 255 255
72.6431 -22.885 7.79032 255 255 255
2.1471 -19.5757 39.2419 255 255 255
7.98809 -20.9189 38.5784 255 255 255
78.607 -26.2793 11.3524 255 255 255
-33.3147 -7.68617 15.0727 255 255 255
-27.3548 -11.3575 23.7828 255 255 255
75.5236 -27.7847 13.3248 255 255 255
-25.2113 8.06921 -49.7806 255 255 255
-22.5443 -15.3232 31.3321 255 255 255
65.722 -20.8646 -8.49163 255 255 255
-6.83317 -20.4915 38.6003 255 255 255
78.9185 -28.8668 7.75677 255 255 255
-19.5675 -17.8754 34.5714 255 255 255
-25.598 -15.4074 28.1081 255 255 255
75.9343 -30.7021 10.8018 255 255 255
83.3261 -30.8429 3.94706 255 255 255
-32.3351 -13.9257 23.805 255 255 255
-50.626 8.56829 -49.5045 255 255 255
69.4392 -27.3457 -3.71284 255 255 255
10.0453 -27.405 40.9424 255 255 255
10.5305 -27.6064 41.1982 255 255 255
-31.5594 -14.8453 24.4604 255 255 255
-32.4008 -15.1195 25.3939 255 255 255
-32.1465 -15.4187 25.8419 255 255 255
10.9921 -28.2902 41.9153 255 255 255
-32.3727 -15.6511 25.6769 255 255 255
-22.0798 -19.742 33.4172 255 255 255
11.4334 -28.6255 41.2509 255 255 255
76.0305 -34.7491 9.09757 255 255 255
76.6951 -36.3283 10.4299 255 255 255
78.1276 -37.8232 13.3122 255 255 255
-36.8359 -2.65976 -34.7822 255 255 255
-36.8449 -2.6448 -34.9038 255 255 255
-26.0138 -21.5425 33.7341 255 255 255
-29.7822 -19.9157 30.1166 255 255 255
-29.6975 -20.2521 29.5586 255 255 255
-6.99749 -28.5569 42.7934 255 255 255
10.2358 -31.6944 40.2694 255 255 255
11.7027 -31.7863 39.079 255 255 255
11.7027 -31.7863 39.079 255 255 255
-28.5695 -22.0212 34.1273 255 255 255
-8.30307 -29.4951 43.8412 255 255 255
-23.4425 -24.6925 36.7371 255 255 255
-6.18646 -30.2445 44.6385 255 255 255
13.4216 -32.8986 37.0492 255 255 255
-22.1071 -25.4333 37.5546 255 255 255
-15.3661 -28.4362 41.3731 255 255 255
-46.7947 -6.3018 -30.748 255 255 255
-30.921 -22.0438 24.6165 255 255 255
-16.0578 -29.0083 40.5076 255 255 255
-3.07847 -32.444 42.4276 255 255 255
-3.08878 -32.4461 42.4582 255 255 255
-7.49505 -31.8325 43.7566 255 255 255
-4.0987 -33.0936 43.207 255 255 255
-40.8166 -11.6576 -22.8998 255 255 255
-3.32951 -33.558 41.6786 255 255 255
-62.0158 -7.73998 -28.5137 255 255 255
-24.7903 -27.4951 32.8568 255 255 255
-7.84059 -33.5282 42.9228 255 255 255
-13.5513 -31.606 39.803 255 255 255
-22.0731 -28.7794 35.2161 255 255 255
11.0349 -36.7148 35.5072 255 255 255
-22.2164 -28.8544 34.7433 255 255 255
-7.58972 -33.7402 41.7299 255 255 255
-8.46734 -33.5172 40.63 255 255 255
-23.2596 -28.8936 33.5675 255 255 255
10.2992 -37.1698 35.7365 255 255 255
-12.9221 -32.4839 39.3043 255 255 255
-23.7881 -28.8997 32.7603 255 255 255
-51.7272 -12.5034 -23.8606 255 255 255
53.132 -44.9861 18.5866 255 255 255
-45.362 -15.7778 -18.3278 255 255 255
-50.9461 -14.3536 -20.2855 255 255 255
-50.9461 -14.3536 -20.2855 255 255 255
16.9986 -39.3649 30.958 255 255 255
16.8441 -39.2336 30.5512 255 255 255
-7.79024 -35.3063 40.7689 255 255 255
9.59996 -38.618 35.4597 255 255 255
-12.5575 -34.1198 38.0668 255 255 255
-47.4242 -17.1176 -16.367 255 255 255
5.2011 -39.0564 38.4082 255 255 255
-16.1048 -33.7834 36.2753 255 255 255
-2.79992 -37.8904 37.5049 255 255 255
-45.6395 -19.6936 -13.0303 255 255 255
-23.8496 -31.8271 30.469 255 255 255
-50.4552 -18.8951 -14.445 255 255 255
-11.782 -36.5314 36.6783 255 255 255
-0.295451 -39.6138 37.3865 255 255 255
-30.5345 -29.642 21.1407 255 255 255
-11.7897 -36.8562 36.514 255 255 255
-30.4634 -30.0889 21.0141 255 255 255
-11.3034 -37.4193 36.2194 255 255 255
-29.684 -30.6868 21.9067 255 255 255
-48.66 -21.6735 -10.6835 255 255 255
-48.6605 -21.6853 -10.7287 255 255 255
-50.0487 -21.4584 -11.3379 255 255 255
-7.46553 -38.9361 37.127 255 255 255
-49.0831 -21.8733 -10.4289 255 255 255
-2.09316 -40.1904 35.9669 255 255 255
-55.1795 -20.6678 -12.9855 255 255 255
-8.13771 -39.2005 36.7169 255 255 255
-53.7665 -21.3125 -12.3231 255 255 255
-24.6983 -34.5868 27.722 255 255 255
-25.0533 -34.6193 28.5737 255 255 255
-22.6166 -35.627 30.2888 255 255 255
-67.3706 -19.4289 -13.8051 255 255 255
-9.6693 -40.0872 35.206 255 255 255
25.5556 -48.2579 26.2026 255 255 255
-51.7016 -24.6878 -6.92533 255 255 255
-25.992 -35.1934 25.5887 255 255 255
-26.5116 -35.1 24.9372 255 255 255
-24.7905 -35.9611 26.8302 255 255 255
-24.7905 -35.9611 26.8302 255 255 255
-60.45 -23.4805 -8.48993 255 255 255
-47.7714 -27.9706 -3.34322 255 255 255
-59.3732 -25.4812 -5.70641 255 255 255
-58.0019 -25.9393 -5.36056 255 255 255
22.1793 -51.4132 31.7602 255 255 255
5.32478 -47.7379 37.5194 255 255 255
-28.9044 -37.1691 23.1497 255 255 255
-7.04789 -44.8807 35.1234 255 255 255
-47.9806 -30.9988 0.11518 255 255 255
-10.1481 -44.3763 32.1125 255 255 255
-53.1109 -30.0778 -0.130315 255 255 255
-48.1168 -31.6499 1.81024 255 255 255
-7.71163 -46.9931 36.6807 255 255 255
-32.4191 -39.4363 24.8957 255 255 255
-8.28018 -47.255 37.0273 255 255 255
-53.8658 -32.5956 3.87194 255 255 255
-31.1401 -40.3521 24.7304 255 255 255
-32.3475 -41.5768 23.1511 255 255 255
13.6378 -56.3791 34.2075 255 255 255
-58.5217 -36.0276 7.06523 255 255 255
-51.1566 -38.5266 10.8831 255 255 255
-59.3503 -36.3475 7.28878 255 255 255
-60.1772 -37.2225 8.74301 255 255 255
12.2702 -62.0784 38.6518 255 255 255
9.23906 -64.6426 44.8149 255 255 255
9.87213 -64.946 45.1391 255 255 255
11.7824 -67.0111 42.5044 255 255 255
10.3749 -66.6682 44.511 255 255 255
-38.0399 -51.6784 28.0776 255 255 255
-11.7129 -60.5246 39.4272 255 255 255
-11.4701 -61.1785 40.2284 255 255 255
-9.84241 -62.8501 42.5044 255 255 255
-5.83174 104.438 -48.2872 255 255 255
6.80941 107.7 -53.3953 255 255 255
43.4324 117.886 -68.6462 255 255 255
8.88347 108.14 -54.4818 255 255 255
50.3724 118.775 -71.516 255 255 255
54.1581 119.764 -72.6623 255 255 255
39.5892 115.526 -67.0864 255 255 255
12.1469 107.88 -56.811 255 255 255
31.6723 111.857 -66.4963 255 255 255
-6.39366 99.5911 -50.4881 255 255 255
-6.36072 99.639 -50.5752 255 255 255
51.1487 114.568 -76.5287 255 255 255
52.5375 114.983 -77.0924 255 255 255
52.659 115.064 -77.1923 255 255 255
58.9434 116.964 -80.2645 255 255 255
58.5136 116.555 -79.5899 255 255 255
32.8216 109.772 -68.979 255 255 255
38.5488 111.09 -71.3785 255 255 255
38.489 111.002 -71.3692 255 255 255
-8.10067 98.5757 -50.9512 255 255 255
-4.5712 99.1668 -51.8729 255 255 255
44.2523 112.586 -73.7593 255 255 255
-38.2484 87.8963 -33.6203 255 255 255
68.7031 118.06 -84.4786 255 255 255
14.8962 104.145 -61.6891 255 255 255
57.3937 71.773 -16.9139 255 255 255
-63.6244 79.7009 -21.5476 255 255 255
-60.036 79.6142 -21.8523 255 255 255
17.1997 103.649 -63.1284 255 255 255
14.9019 102.856 -62.5186 255 255 255
24.3668 105.636 -67.3384 255 255 255
55.9841 46.8439 19.7082 255 255 255
0.241794 98.5843 -56.2985 255 255 255
-1.57355 97.9088 -55.2022 255 255 255
64.2514 114.466 -85.4039 255 255 255
11.6651 100.727 -62.0588 255 255 255
-35.4265 88.7521 -40.4899 255 255 255
6.46519 99.1761 -59.601 255 255 255
63.1914 38.4238 30.4664 255 255 255
61.9488 37.7749 31.5602 255 255 255
63.0974 37.4703 32.1419 255 255 255
4.88238 98.7649 -59.0207 255 255 255
32.697 105.742 -71.6092 255 255 255
-73.0826 79.187 -23.2444 255 255 255
-70.6205 79.5879 -24.1281 255 255 255
62.7837 36.1646 33.6307 255 255 255
60.3591 38.6094 29.6255 255 255 255
-9.64771 94.4858 -52.4327 255 255 255
-9.48538 94.7567 -53.0084 255 255 255
-43.0903 86.116 -37.3986 255 255 255
18.9923 101.76 -65.9966 255 255 255
71.2716 34.5098 35.261 255 255 255
60.9617 39.9485 26.8518 255 255 255
17.5409 101.349 -65.6936 255 255 255
59.7668 41.738 23.4357 255 255 255
63.0371 37.5411 29.7931 255 255 255
63.6641 37.842 29.2757 255 255 255
-63.2203 80.1403 -28.2266 255 255 255
-41.1034 85.7529 -38.8605 255 255 255
32.0534 104.735 -73.8781 255 255 255
32.0534 104.735 -73.8781 255 255 255
14.5012 99.3311 -64.9854 255 255 255
58.9901 42.8846 20.0938 255 255 255
-63.7903 79.9096 -28.7005 255 255 255
-53.1865 82.2769 -33.7807 255 255 255
-13.1445 91.9019 -52.5971 255 255 255
-9.19607 92.7302 -54.3991 255 255 255
35.1501 103.575 -74.9602 255 255 255
18.3652 98.9335 -67.1757 255 255 255
18.3024 98.8132 -67.012 255 255 255
28.8809 101.478 -72.4234 255 255 255
-71.6634 76.5267 -24.9822 255 255 255
31.5177 101.637 -74.3078 255 255 255
34.7873 102.198 -75.5439 255 255 255
30.3999 100.841 -74.2459 255 255 255
73.5003 110.843 -92.916 255 255 255
64.093 57.985 -8.21047 255 255 255
-13.2533 89.7112 -53.6346 255 255 255
-13.0881 89.9359 -54.0363 255 255 255
-1.44581 92.6617 -59.0767 255 255 255
65.0672 56.4616 -6.46518 255 255 255
8.8059 95.1407 -64.2699 255 255 255
38.9778 102.065 -78.68 255 255 255
51.1653 104.868 -84.8874 255 255 255
-55.6219 78.5983 -34.5777 255 255 255
56.2335 104.181 -87.7797 255 255 255
71.7367 107.302 -94.8311 255 255 255
-6.58569 89.1212 -58.8445 255 255 255
99.9142 113.143 -108.349 255 255 255
100.029 113.169 -108.55 255 255 255
49.988 101.347 -86.1148 255 255 255
-31.5726 82.5256 -47.71 255 255 255
-13.8824 85.4827 -56.5019 255 255 255
-13.8765 85.4699 -56.4924 255 255 255
54.1908 101.028 -88.4842 255 255 255
63.7237 32.1247 25.5257 255 255 255
63.8291 32.1521 25.414 255 255 255
52.7296 100.751 -88.205 255 255 255
52.965 101.059 -88.6365 255 255 255
47.533 99.4027 -85.9757 255 255 255
83.3235 107.437 -102.174 255 255 255
-22.9565 83.2174 -52.6339 255 255 255
100.359 110.457 -110.499 255 255 255
-8.27812 86.0693 -60.4941 255 255 255
-6.6506 86.5094 -61.1992 255 255 255
53.6883 99.7738 -89.3428 255 255 255
79.3525 105.12 -100.529 255 255 255
112.352 112.731 -116.08 255 255 255
65.2914 50.8121 -8.95836 255 255 255
54.6232 99.1905 -90.1978 255 255 255
64.1503 101.53 -94.897 255 255 255
39.5264 96.1517 -83.3087 255 255 255
-4.91923 85.2589 -61.5056 255 255 255
-57.2903 73.8506 -35.5198 255 255 255
-52.9517 74.9416 -38.7876 255 255 255
58.3803 99.5505 -92.9791 255 255 255
33.7313 93.0958 -81.6179 255 255 255
16.4671 89.0546 -74.0501 255 255 255
-6.74799 83.8823 -62.6487 255 255 255
65.7237 99.159 -97.441 255 255 255
-52.7195 73.463 -39.2183 255 255 255
-49.0853 74.9271 -42.0835 255 255 255
-38.2324 77.0126 -47.5087 255 255 255
-9.81905 82.8128 -61.3252 255 255 255
60.9582 53.1927 -19.9332 255 255 255
65.0355 48.2449 -11.6337 255 255 255
-67.6481 70.3436 -33.1758 255 255 255
-67.5692 70.2165 -32.84 255 255 255
-27.0088 78.4639 -53.7176 255 255 255
32.9959 91.3551 -83.9616 255 255 255
-48.3581 73.125 -42.137 255 255 255
-47.2584 73.7682 -44.0639 255 255 255
39.3404 91.4065 -86.9662 255 255 255
39.2384 91.2884 -86.7892 255 255 255
-7.96423 81.2698 -63.8822 255 255 255
-52.2567 71.9534 -41.3969 255 255 255
-21.4338 78.6049 -57.4614 255 255 255
-9.86964 80.8018 -63.2303 255 255 255
22.8822 86.9792 -79.0973 255 255 255
28.0188 88.202 -81.6111 255 255 255
-11.0661 80.2187 -63.127 255 255 255
-11.2106 79.9951 -62.723 255 255 255
-47.616 72.7392 -44.9071 255 255 255
6.23984 82.6662 -71.2458 255 255 255
26.5226 87.0886 -81.8165 255 255 255
26.5226 87.0886 -81.8165 255 255 255
-16.6771 77.62 -60.2402 255 255 255
-81.2006 65.4438 -28.4513 255 255 255
-81.1028 65.27 -28.2176 255 255 255
69.8381 94.5409 -102.254 255 255 255
70.0195 94.7591 -102.651 255 255 255
-18.908 77.238 -59.8893 255 255 255
14.566 84.0411 -76.636 255 255 255
14.6199 84.1084 -76.7684 255 255 255
94.2436 99.3445 -115.105 255 255 255
-81.2223 64.8179 -28.6133 255 255 255
-47.1512 71.264 -45.9266 255 255 255
63.5215 25.5865 20.9593 255 255 255
-48.4086 70.7959 -45.0865 255 255 255
90.2326 98.2115 -114.049 255 255 255
55.5967 90.8756 -97.1884 255 255 255
28.8035 85.3747 -84.6857 255 255 255
31.3889 85.9243 -86.3114 255 255 255
31.6602 86.3198 -86.9874 255 255 255
-78.5877 64.6704 -30.9732 255 255 255
-13.2207 76.389 -63.6971 255 255 255
-2.09298 78.9032 -69.749 255 255 255
62.1244 91.2589 -101.697 255 255 255
62.1564 91.3428 -101.865 255 255 255
62.17 91.3135 -101.826 255 255 255
72.3339 92.9134 -105.991 255 255 255
-75.9627 64.9128 -32.7767 255 255 255
-0.610286 78.6685 -71.1324 255 255 255
67.2768 20.82 25.6683 255 255 255
32.3392 84.198 -87.6373 255 255 255
-6.83468 76.5358 -67.9591 255 255 255
83.9703 93.9308 -113.027 255 255 255
100.454 96.6961 -120.869 255 255 255
80.4984 92.7595 -111.346 255 255 255
97.3631 95.8102 -119.773 255 255 255
-25.3134 72.8023 -59.1149 255 255 255
-0.580682 77.4173 -71.6778 255 255 255
-1.75962 77.1333 -71.7941 255 255 255
90.0149 93.935 -116.873 255 255 255
89.8881 93.9058 -116.877 255 255 255
67.667 89.2434 -106.056 255 255 255
62.271 87.0487 -101.874 255 255 255
53.9634 86.204 -100.234 255 255 255
63.5196 22.3704 18.1775 255 255 255
63.5196 22.3704 18.1775 255 255 255
-75.5303 62.2333 -34.2784 255 255 255
65.5496 39.1238 -16.0573 255 255 255
3.12636 74.0398 -76.7052 255 255 255
1.95741 72.7084 -75.5 255 255 255
45.647 80.7596 -99.0753 255 255 255
60.694 42.3604 -27.5522 255 255 255
-25.5662 68.0921 -62.6244 255 255 255
34.088 78.1526 -94.0072 255 255 255
-27.4723 67.6102 -61.868 255 255 255
30.6472 76.8922 -91.2667 255 255 255
42.4105 78.2447 -98.2185 255 255 255
39.0999 75.7583 -93.9299 255 255 255
-82.5346 52.636 -25.1409 255 255 255
-13.1419 67.8999 -70.6278 255 255 255
-14.8373 67.3125 -69.8178 255 255 255
-34.2219 63.1814 -60.1244 255 255 255
64.9872 33.9822 -22.057 255 255 255
63.654 34.8096 -25.0663 255 255 255
-28.3029 63.3866 -63.9794 255 255 255
58.4242 20.9122 3.54303 255 255 255
61.3762 36.3155 -29.5338 255 255 255
-58.7694 58.1583 -47.9073 255 255 255
66.3517 30.9376 -20.1001 255 255 255
56.0954 22.6009 -1.99424 255 255 255
32.3634 69.8106 -95.0647 255 255 255
13.1815 67.523 -87.1091 255 255 255
35.478 70.9515 -99.4266 255 255 255
29.2717 70.3604 -97.7025 255 255 255
-72.2772 54.6971 -41.0073 255 255 255
-72.2541 54.8233 -41.322 255 255 255
-72.2399 54.8752 -41.4388 255 255 255
66.1152 29.7724 -21.275 255 255 255
-55.757 57.0398 -51.0978 255 255 255
-55.7501 57.0269 -51.0436 255 255 255
28.8934 68.9552 -96.3824 255 255 255
-33.0539 60.3902 -64.1546 255 255 255
-33.0539 60.3902 -64.1546 255 255 255
13.6622 65.3169 -86.6748 255 255 255
44.5907 71.2048 -105.694 255 255 255
65.5561 73.2526 -116.625 255 255 255
71.1136 5.36629 26.6133 255 255 255
58.2039 37.2225 -39.2836 255 255 255
-25.0817 60.1589 -68.5165 255 255 255
44.1473 69.4075 -105.971 255 255 255
44.1754 69.428 -106.024 255 255 255
-22.1861 60.0599 -70.1589 255 255 255
-22.1167 60.1819 -70.5415 255 255 255
-22.141 60.1398 -70.2573 255 255 255
-6.24964 61.7983 -78.6271 255 255 255
60.8175 33.5329 -34.8435 255 255 255
37.0829 67.782 -102.872 255 255 255
25.726 65.8074 -97.4771 255 255 255
56.7167 18.5079 -3.10878 255 255 255
56.8747 18.5664 -3.29276 255 255 255
42.5893 67.2387 -106.682 255 255 255
71.3529 2.54988 26.0736 255 255 255
14.6257 62.3613 -91.6002 255 255 255
-55.7095 53.3289 -54.2084 255 255 255
56.8052 16.5722 -4.39426 255 255 255
46.6865 65.2864 -110.697 255 255 255
14.4924 61.0987 -92.5852 255 255 255
12.055 60.5277 -92.3062 255 255 255
0.416425 59.1455 -86.2307 255 255 255
36.848 63.4948 -106.298 255 255 255
61.8915 28.193 -34.6057 255 255 255
61.7974 28.2152 -34.5692 255 255 255
62.4788 27.4638 -33.6624 255 255 255
40.5661 63.2261 -108.531 255 255 255
64.3464 24.7591 -30.1539 255 255 255
-7.31752 55.901 -83.3493 255 255 255
11.1096 58.2313 -94.1301 255 255 255
-6.27924 55.8019 -83.5645 255 255 255
-6.24726 55.8027 -83.5951 255 255 255
66.4422 4.15531 12.3894 255 255 255
-33.1141 51.9224 -69.7631 255 255 255
-7.57643 54.8257 -84.315 255 255 255
67.6691 2.59473 14.7263 255 255 255
64.1991 22.1379 -32.3468 255 255 255
70.9503 -4.0138 25.8275 255 255 255
-53.5031 46.728 -56.6435 255 255 255
65.0175 20.2166 -31.2564 255 255 255
-48.2182 48.2593 -62.5611 255 255 255
-31.023 49.1434 -72.9362 255 255 255
-31.023 49.1434 -72.9362 255 255 255
69.5689 -1.70438 16.307 255 255 255
-59.5248 46.0349 -57.3603 255 255 255
-10.8401 2.82351 29.497 255 255 255
-10.7963 2.84808 29.3623 255 255 255
-63.0605 44.7931 -55.3919 255 255 255
-63.0749 44.7646 -55.3519 255 255 255
-67.0393 44.2551 -53.2516 255 255 255
-61.3122 44.5799 -56.786 255 255 255
-7.18449 49.835 -88.2989 255 255 255
68.7871 -2.21362 14.3264 255 255 255
4.59309 -3.82246 36.5179 255 255 255
-67.3642 42.9653 -53.8569 255 255 255
-46.7145 44.4308 -65.7809 255 255 255
68.135 -2.40631 11.5301 255 255 255
68.122 -2.37259 11.5596 255 255 255
-11.8952 47.0038 -85.6709 255 255 255
-14.5393 1.67128 27.6378 255 255 255
70.0995 -4.75088 15.1114 255 255 255
-52.248 43.5198 -63.309 255 255 255
-3.71425 46.9857 -92.5288 255 255 255
-12.0397 -2.27699 33.3778 255 255 255
10.0994 42.9563 -92.0965 255 255 255
70.3601 -7.44655 15.5243 255 255 255
24.2003 37.7804 -86.1148 255 255 255
-15.557 -0.91992 29.4771 255 255 255
68.334 -6.29257 9.7528 255 255 255
-18.8237 0.167766 25.1493 255 255 255
72.537 -11.3182 16.9548 255 255 255
-29.2959 40.229 -81.2744 255 255 255
-19.8653 -1.21577 24.9489 255 255 255
-23.885 39.723 -84.3294 255 255 255
11.4899 -9.98857 35.7341 255 255 255
60.7866 -1.85012 -7.41939 255 255 255
12.4006 -10.9261 35.6374 255 255 255
-41.4681 35.4825 -76.7252 255 255 255
-9.78224 -9.92529 38.221 255 255 255
-9.78224 -9.92529 38.221 255 255 255
-20.2035 1.81924 8.84423 255 255 255
-21.9433 -2.8174 22.1461 255 255 255
-34.8961 32.4415 -79.3248 255 255 255
65.0534 -11.6469 -2.46933 255 255 255
-4.96624 -15.1611 39.9556 255 255 255
76.7663 -23.2116 20.4279 255 255 255
76.2727 -23.3894 17.9525 255 255 255
75.1694 -22.2101 10.7942 255 255 255
-17.1364 -14.0146 34.2173 255 255 255
10.5726 -20.0527 35.6925 255 255 255
26.9524 -22.5693 33.6679 255 255 255
9.43914 -21.0877 38.2007 255 255 255
71.9978 -23.2311 6.56167 255 255 255
-13.0542 -16.7518 36.78 255 255 255
-31.0254 -7.96044 15.7912 255 255 255
67.5146 -20.8885 -3.66534 255 255 255
68.8693 -24.3206 -2.89361 255 255 255
74.7462 -29.942 7.80975 255 255 255
-32.9487 -14.1232 23.919 255 255 255
69.4485 -27.7378 -3.00074 255 255 255
10.8271 -28.2948 41.8841 255 255 255
-28.4477 -17.1616 28.1116 255 255 255
79.326 -32.2747 1.49977 255 255 255
79.326 -32.2747 1.49977 255 255 255
-6.9619 -25.2789 41.2556 255 255 255
-7.69734 -25.0736 40.5409 255 255 255
-7.7033 -25.0704 40.5764 255 255 255
77.674 -31.7041 -2.45546 255 255 255
-31.2538 -17.2622 27.6346 255 255 255
75.7765 -35.0274 7.64856 255 255 255
-29.6748 -19.4294 30.7077 255 255 255
14.025 -31.4541 37.9804 255 255 255
-33.7771 -18.0122 22.9073 255 255 255
-26.9748 -22.6079 35.3035 255 255 255
-34.6924 -6.52071 -29.9164 255 255 255
-33.6427 -18.9974 21.9346 255 255 255
-6.46383 -29.9382 44.3234 255 255 255
-6.45958 -29.9688 44.3438 255 255 255
69.942 -40.2286 12.8462 255 255 255
-16.8068 -27.6587 41.1972 255 255 255
-28.3499 -23.5242 33.3555 255 255 255
-17.7441 -27.4907 41.0529 255 255 255
-7.64632 -30.6575 45.0919 255 255 255
-50.7742 -5.54109 -31.2952 255 255 255
-15.6513 -28.61 41.1416 255 255 255
-37.2194 -10.4597 -25.3402 255 255 255
-8.60848 -31.226 42.7891 255 255 255
-43.2499 -10.2167 -25.5658 255 255 255
5.30753 -34.502 40.5495 255 255 255
5.58465 -34.525 40.202 255 255 255
-41.5821 -11.0477 -24.2573 255 255 255
-23.665 -27.2995 34.27 255 255 255
-15.206 -30.751 39.5361 255 255 255
-41.1857 -13.5253 -20.9221 255 255 255
-26.9838 -26.7195 30.753 255 255 255
-26.9742 -26.7246 30.7217 255 255 255
-42.3955 -13.33 -21.3494 255 255 255
-13.8697 -31.7387 39.4439 255 255 255
-7.63163 -33.9073 42.4334 255 255 255
-43.7287 -14.4203 -20.2901 255 255 255
4.44369 -36.6498 39.2114 255 255 255
-29.7223 -25.9993 25.0566 255 255 255
-13.3389 -32.2757 39.0867 255 255 255
-11.7501 -32.7801 38.8765 255 255 255
-71.2772 -8.55185 -27.6388 255 255 255
-19.0705 -31.4826 36.5731 255 255 255
9.24424 -38.9941 36.2629 255 255 255
-48.3739 -17.5411 -15.733 255 255 255
-6.85531 -36.7837 40.4751 255 255 255
4.77046 -39.041 36.8215 255 255 255
-31.4405 -27.6071 21.2179 255 255 255
-48.1143 -18.0568 -15.4821 255 255 255
-41.1605 -20.6895 -9.34889 255 255 255
-45.4439 -19.071 -13.8774 255 255 255
-19.243 -33.7101 36.7006 255 255 255
-22.6786 -31.8979 31.1429 255 255 255
-23.3816 -31.9225 31.0529 255 255 255
19.4505 -42.985 32.0303 255 255 255
-17.074 -35.3871 34.9035 255 255 255
-7.80373 -38.076 37.5977 255 255 255
-58.0063 -18.2898 -14.9764 255 255 255
-22.9693 -33.2445 29.9581 255 255 255
-28.3851 -31.7691 27.0795 255 255 255
-29.4652 -30.972 22.5797 255 255 255
-54.7177 -19.985 -13.5424 255 255 255
-23.7784 -33.6543 28.9255 255 255 255
2.24528 -41.2623 35.0335 255 255 255
-2.96655 -40.2313 36.2045 255 255 255
-14.4429 -37.385 34.9616 255 255 255
-1.22537 -41.3507 35.7388 255 255 255
-54.8486 -21.8436 -10.7394 255 255 255
-0.554996 -41.7633 35.1617 255 255 255
-22.5628 -36.2497 29.9306 255 255 255
-25.4943 -35.739 25.7247 255 255 255
-54.52 -24.9028 -6.68177 255 255 255
-52.953 -25.421 -5.98225 255 255 255
-57.9432 -24.3119 -7.07895 255 255 255
-8.26224 -42.3594 34.3025 255 255 255
-19.6931 -40.3594 31.8629 255 255 255
-6.62181 -44.4044 35.4903 255 255 255
-47.6425 -29.9722 -0.917051 255 255 255
-50.1614 -29.3646 -0.929672 255 255 255
-70.2521 -24.5305 -7.2177 255 255 255
-49.5825 -31.6273 1.5811 255 255 255
-48.1788 -32.7669 3.37405 255 255 255
11.1414 -53.8732 34.8576 255 255 255
-31.8484 -42.5804 22.767 255 255 255
12.7148 -59.2851 37.7974 255 255 255
-60.3174 -38.4227 9.91534 255 255 255
11.0453 -62.8326 39.0297 255 255 255
2.9057 -60.6137 36.5129 255 255 255
-2.08914 -59.7392 37.5486 255 255 255
-1.98122 -60.3845 38.6846 255 255 255
6.12493 -65.6881 46.0919 255 255 255
-4.24594 -62.8579 40.09 255 255 255
-10.4844 -60.8614 40.0301 255 255 255
-12.1655 -60.5352 38.7013 255 255 255
1.68804 -65.1491 42.0114 255 255 255
-13.7304 -60.7651 41.2143 255 255 255
-10.1026 -62.0889 41.2175 255 255 255
4.68125 106.927 -52.3416 255 255 255
0.137903 105.496 -50.3709 255 255 255
32.8592 113.702 -64.1438 255 255 255
64.3442 122.909 -77.8123 255 255 255
31.641 113.313 -64.529 255 255 255
16.0603 106.877 -60.2945 255 255 255
62.9152 119.505 -79.8246 255 255 255
11.3836 104.751 -57.4989 255 255 255
11.7317 105.327 -58.3613 255 255 255
60.0533 118.367 -79.1921 255 255 255
60.0129 118.305 -79.0766 255 255 255
50.5704 115.553 -75.3826 255 255 255
-5.50508 99.4382 -51.2911 255 255 255
24.2927 107.318 -65.0448 255 255 255
-11.645 97.3747 -49.0271 255 255 255
57.6355 71.6385 -14.2231 255 255 255
40.1736 111.303 -72.3573 255 255 255
18.2796 105.268 -62.8423 255 255 255
-12.6927 96.895 -48.9884 255 255 255
16.3043 104.678 -62.1171 255 255 255
63.8242 42.0222 29.4043 255 255 255
-1.43678 99.428 -54.7801 255 255 255
59.799 68.1963 -11.1816 255 255 255
-17.1592 94.6222 -48.0912 255 255 255
57.9557 70.2904 -16.1127 255 255 255
60.5721 67.2856 -11.6681 255 255 255
-63.5154 81.8502 -26.119 255 255 255
-59.0905 83.4264 -29.0535 255 255 255
21.9288 103.991 -66.2999 255 255 255
21.5414 103.482 -65.5207 255 255 255
62.5119 63.9806 -7.74736 255 255 255
-6.78816 96.2832 -53.1736 255 255 255
-29.5961 90.3791 -42.9232 255 255 255
57.2645 44.693 21.3395 255 255 255
62.7674 35.592 34.5297 255 255 255
-28.5147 89.7994 -43.6679 255 255 255
-4.37481 95.8924 -54.8822 255 255 255
26.2681 104.014 -69.3842 255 255 255
62.6858 38.0091 30.082 255 255 255
35.4471 106.203 -73.5702 255 255 255
-5.53083 94.732 -55.1673 255 255 255
5.66077 97.4762 -60.256 255 255 255
21.5357 101.431 -67.8008 255 255 255
27.6587 103.022 -70.9147 255 255 255
-6.59535 94.1542 -55.4176 255 255 255
-24.8084 89.7978 -47.0579 255 255 255
-10.1183 93.2575 -53.8979 255 255 255
17.8876 100.099 -66.5158 255 255 255
63.4363 36.3326 28.4016 255 255 255
-6.70561 92.8859 -56.2709 255 255 255
-4.35942 93.4849 -57.1665 255 255 255
-68.2905 77.4079 -27.0921 255 255 255
16.1778 97.422 -67.4185 255 255 255
16.1869 97.4666 -67.5477 255 255 255
-76.0391 75.3568 -24.0557 255 255 255
-62.7435 78.3685 -30.6372 255 255 255
-62.7235 78.2892 -30.4683 255 255 255
-6.72545 91.7028 -57.3548 255 255 255
-10.3729 90.4904 -55.3576 255 255 255
62.7457 107.738 -88.6356 255 255 255
86.7843 113.399 -99.5787 255 255 255
18.5817 97.3526 -69.681 255 255 255
35.3827 101.069 -76.748 255 255 255
104.316 117.042 -107.318 255 255 255
-29.3102 85.2996 -46.5333 255 255 255
-29.2668 85.4317 -46.7572 255 255 255
-2.00493 91.7988 -59.7291 255 255 255
79.3782 110.904 -96.9701 255 255 255
79.6643 111.091 -97.4095 255 255 255
40.0739 100.89 -78.6779 255 255 255
40.0739 100.89 -78.6779 255 255 255
-67.0095 76.1425 -29.6018 255 255 255
52.7594 103.582 -86.2857 255 255 255
52.6704 103.493 -86.2083 255 255 255
47.6104 102.093 -83.8836 255 255 255
49.392 102.523 -84.6121 255 255 255
49.4723 102.603 -84.8644 255 255 255
73.647 107.94 -95.2873 255 255 255
-3.11575 88.8267 -61.1121 255 255 255
-2.98234 89.0272 -61.4791 255 255 255
40.515 98.7552 -82.3027 255 255 255
-66.1484 74.2357 -31.3126 255 255 255
-16.882 84.3393 -55.2249 255 255 255
-23.3923 82.552 -53.1199 255 255 255
71.3481 103.41 -97.6709 255 255 255
13.2695 90.5109 -71.3955 255 255 255
-55.0554 74.9181 -37.8504 255 255 255
-55.0457 74.9396 -37.9177 255 255 255
38.4903 95.3196 -83.6505 255 255 255
55.3353 98.3824 -90.0707 255 255 255
68.888 102.19 -98.3905 255 255 255
68.5956 101.958 -97.7793 255 255 255
-19.3857 82.2877 -55.6013 255 255 255
60.5575 53.3244 -15.907 255 255 255
13.9658 89.1683 -71.9853 255 255 255
13.9937 89.158 -72.0662 255 255 255
35.2367 93.768 -82.5499 255 255 255
-61.8538 72.5494 -35.1908 255 255 255
-61.8538 72.5494 -35.1908 255 255 255
-61.8128 72.6919 -35.3713 255 255 255
38.4398 93.8375 -85.004 255 255 255
-21.5774 80.5218 -55.4178 255 255 255
66.7065 46.7668 -8.19767 255 255 255
-24.0848 79.9872 -55.3046 255 255 255
-23.1415 79.8683 -55.3314 255 255 255
-75.2812 68.5341 -28.6492 255 255 255
-6.88999 82.6986 -63.8113 255 255 255
29.8958 89.9261 -81.8559 255 255 255
-45.7885 74.2105 -44.9358 255 255 255
35.2869 90.426 -84.751 255 255 255
-49.1159 73.0215 -43.0465 255 255 255
-49.0969 73.0365 -43.1691 255 255 255
-17.3373 79.6535 -59.4986 255 255 255
62.0697 29.496 18.9337 255 255 255
-31.1293 76.4582 -52.3451 255 255 255
-20.3224 78.2339 -57.7828 255 255 255
-43.0465 73.7622 -46.5446 255 255 255
-54.7246 71.3145 -40.7464 255 255 255
64.5571 94.9376 -100.153 255 255 255
66.1448 43.8211 -9.65325 255 255 255
-74.0226 66.6114 -30.9755 255 255 255
59.4091 30.473 13.2607 255 255 255
